# .PCD v0.7 - Point Cloud Data file format
VERSION 0.7
FIELDS x y z
SIZE 4 4 4
TYPE F F F
COUNT 1 1 1
WIDTH 1511
HEIGHT 1
VIEWPOINT 0 0 0 1 0 0 0
POINTS 1511
DATA ascii
-533.31281 -124.92994 4.3829331
-533.31281 -124.92994 4.3829265
-533.31281 -124.92994 4.382915
-533.31281 -124.92994 4.3829007
-533.31281 -124.92995 4.3828454
-533.31281 -124.92995 4.3828373
-533.31281 -124.92995 4.3828278
-533.31281 -124.92995 4.3828177
-533.31281 -124.92995 4.3828101
-533.31281 -124.92995 4.3828011
-533.31281 -124.92995 4.3827925
-533.31281 -124.92996 4.3827834
-533.31293 -124.92991 4.3831253
-533.31293 -124.92992 4.3831167
-533.31293 -124.92992 4.3831077
-533.31287 -124.92992 4.3830972
-533.31287 -124.92992 4.3830786
-533.31287 -124.92992 4.3830562
-533.31299 -124.92987 4.3833957
-533.31299 -124.92988 4.3833756
-533.31299 -124.92988 4.3833694
-533.31299 -124.92988 4.3833594
-533.31299 -124.92989 4.3833346
-533.29791 -124.25672 4.3665047
-533.29791 -124.25673 4.3664837
-533.29791 -124.25673 4.3664641
-533.29791 -124.25673 4.3664527
-533.29791 -124.25674 4.3664422
-533.29779 -124.25676 4.3662434
-533.29779 -124.25676 4.3662324
-533.29779 -124.25677 4.3662133
-533.29779 -124.25677 4.3662033
-533.29779 -124.25677 4.3661942
-533.29779 -124.25677 4.3661857
-533.29779 -124.25677 4.366178
-533.29779 -124.25677 4.3661151
-533.29779 -124.25678 4.3661046
-533.29773 -124.25678 4.3660946
-533.29773 -124.25678 4.3660855
-533.29736 -124.25694 4.3649259
-533.29736 -124.25694 4.3649178
-533.29736 -124.25694 4.3649111
-533.2973 -124.25695 4.3648524
-533.2973 -124.25696 4.3648419
-533.2973 -124.25696 4.3648319
-533.2973 -124.25696 4.3648214
-533.2973 -124.25696 4.364809
-533.2973 -124.25696 4.3647981
-533.2973 -124.25697 4.3647828
-533.29761 -124.25684 4.3656926
-533.29761 -124.25684 4.3656864
-533.29761 -124.25684 4.3656812
-533.29761 -124.25684 4.3656764
-533.29761 -124.25684 4.3656678
-533.29761 -124.25684 4.3656626
-533.29761 -124.25684 4.3656578
-533.29761 -124.25684 4.3656535
-533.29761 -124.25685 4.3656011
-533.29761 -124.25685 4.3655977
-533.29761 -124.25685 4.3655953
-533.29761 -124.25685 4.365592
-533.29761 -124.25685 4.3655882
-533.29761 -124.25685 4.3655863
-533.29755 -124.25685 4.365581
-533.29767 -124.25682 4.3658094
-533.29767 -124.25682 4.365808
-533.29767 -124.25682 4.3658056
-533.29767 -124.25682 4.3658023
-533.28253 -123.58367 4.3489013
-533.28253 -123.58367 4.3488994
-533.28253 -123.58367 4.3488965
-533.28296 -123.58353 4.3499823
-533.28296 -123.58353 4.3499799
-533.28296 -123.58353 4.3499775
-533.28296 -123.58353 4.3499761
-533.28296 -123.58353 4.3499775
-533.28296 -123.58353 4.349977
-533.28296 -123.58353 4.3499761
-533.28296 -123.58353 4.3499742
-533.28296 -123.58351 4.3500657
-533.28296 -123.58351 4.3500667
-533.28296 -123.58351 4.3500671
-533.28296 -123.58351 4.3500676
-533.28296 -123.58351 4.3500729
-533.28296 -123.58351 4.3500757
-533.28296 -123.58351 4.3500772
-533.28296 -123.58351 4.35008
-533.28314 -123.58346 4.3504596
-533.28314 -123.58346 4.350461
-533.28314 -123.58346 4.3504629
-533.28314 -123.58346 4.3504658
-533.28314 -123.58346 4.3504715
-533.28314 -123.58346 4.3504748
-533.28314 -123.58346 4.3504782
-533.28314 -123.58345 4.3504834
-533.28326 -123.5834 4.3508673
-533.28326 -123.5834 4.3508706
-533.28326 -123.5834 4.350872
-533.28326 -123.5834 4.3508744
-533.28326 -123.5834 4.3508801
-533.28326 -123.5834 4.3508811
-533.28326 -123.5834 4.3508849
-533.2832 -123.58343 4.3506737
-533.2832 -123.58343 4.3506756
-533.2832 -123.58343 4.3506808
-533.2832 -123.58343 4.3506799
-533.2832 -123.58343 4.3506813
-533.2832 -123.58343 4.3506861
-533.28339 -123.58335 4.3512273
-533.28339 -123.58335 4.3512354
-533.28339 -123.58335 4.3512373
-533.28339 -123.58335 4.3512416
-533.26843 -122.91015 4.334734
-533.26843 -122.91015 4.3347359
-533.26843 -122.91015 4.334733
-533.26843 -122.91015 4.3347325
-533.26843 -122.91015 4.3347325
-533.26855 -122.9101 4.3351231
-533.26855 -122.9101 4.3351254
-533.26855 -122.91009 4.3351316
-533.26855 -122.91009 4.3351326
-533.26862 -122.91009 4.3351345
-533.26862 -122.91009 4.3351345
-533.26825 -122.91022 4.3341389
-533.26825 -122.91022 4.3341408
-533.26825 -122.91022 4.3341436
-533.26825 -122.91022 4.334147
-533.26837 -122.91017 4.3345513
-533.26837 -122.91017 4.3345642
-533.26843 -122.91016 4.3346548
-533.26843 -122.91016 4.3346577
-533.26843 -122.91016 4.3346653
-533.26843 -122.91016 4.3346682
-533.26843 -122.91016 4.3346715
-533.26843 -122.91016 4.3346758
-533.26831 -122.91021 4.3342972
-533.26831 -122.9102 4.3343029
-533.26831 -122.9102 4.3343062
-533.26831 -122.9102 4.3343086
-533.26831 -122.9102 4.3343115
-533.26831 -122.9102 4.334312
-533.26831 -122.9102 4.3343115
-533.26831 -122.9102 4.334312
-533.26855 -122.9101 4.3350472
-533.26855 -122.9101 4.3350563
-533.26855 -122.9101 4.335063
-533.26855 -122.9101 4.3350682
-533.26855 -122.9101 4.335073
-533.26855 -122.9101 4.3350773
-533.26874 -122.91004 4.3354907
-533.26874 -122.91004 4.335494
-533.26874 -122.91004 4.3354993
-533.61737 -119.53234 4.2518826
-533.61737 -119.53234 4.2518854
-533.61737 -119.53233 4.2518859
-533.61737 -119.53233 4.2518868
-533.61737 -119.53233 4.2518883
-533.61804 -119.53208 4.2537446
-533.61804 -119.53208 4.2537451
-533.61804 -119.53208 4.2537451
-533.61804 -119.53208 4.253746
-533.61804 -119.53208 4.2537489
-533.61804 -119.53208 4.2537503
-533.61804 -119.53208 4.2537513
-533.61804 -119.53207 4.2537532
-533.61835 -119.53197 4.254518
-533.61835 -119.53197 4.254519
-533.61835 -119.53197 4.2545204
-533.61835 -119.53197 4.2545218
-533.61835 -119.53197 4.2545218
-533.61835 -119.53197 4.2545238
-533.61835 -119.53197 4.2545266
-533.61835 -119.53197 4.2545295
-533.61823 -119.53202 4.2541914
-533.61823 -119.53201 4.2541971
-533.61823 -119.53201 4.254199
-533.61823 -119.53201 4.2542028
-533.61823 -119.53201 4.2542119
-533.6181 -119.53206 4.2538753
-533.6181 -119.53206 4.253881
-533.6181 -119.53206 4.2538872
-533.6181 -119.53206 4.2538943
-533.6181 -119.53206 4.2539034
-533.6181 -119.53206 4.2539105
-533.6181 -119.53206 4.2539163
-533.6181 -119.53205 4.2539225
-533.61835 -119.53197 4.2545047
-533.61835 -119.53197 4.2545128
-533.61835 -119.53197 4.2545199
-533.61835 -119.53197 4.2545276
-533.61835 -119.53197 4.2545357
-533.61835 -119.53197 4.2545428
-533.61835 -119.53197 4.254549
-533.61835 -119.53197 4.2545557
-533.61835 -119.53198 4.2544432
-533.61835 -119.53198 4.2544489
-533.61835 -119.53198 4.2544551
-533.61835 -119.53198 4.2544618
-533.61835 -119.53198 4.2544651
-533.60321 -118.85883 4.2375708
-533.60321 -118.85883 4.2375817
-533.60254 -118.85911 4.2355704
-533.60254 -118.85911 4.2355762
-533.60254 -118.85911 4.2355819
-533.60248 -118.85912 4.2354808
-533.60248 -118.85912 4.2354851
-533.60248 -118.85912 4.2354889
-533.60248 -118.85912 4.2354932
-533.60229 -118.85919 4.2349548
-533.60229 -118.85919 4.2349591
-533.60229 -118.85919 4.2349639
-533.60229 -118.85919 4.2349691
-533.60229 -118.85919 4.2349706
-533.60229 -118.85919 4.2349739
-533.60229 -118.85919 4.2349777
-533.60229 -118.85919 4.2349806
-533.60266 -118.85905 4.2360234
-533.60266 -118.85905 4.2360282
-533.60266 -118.85905 4.236032
-533.60266 -118.85904 4.2360353
-533.60266 -118.85904 4.2360454
-533.60266 -118.85904 4.2360506
-533.60266 -118.85904 4.2360559
-533.60266 -118.85904 4.2360601
-533.60284 -118.85899 4.2364225
-533.60284 -118.85899 4.2364273
-533.60284 -118.85899 4.2364302
-533.60284 -118.85899 4.236433
-533.60284 -118.85899 4.236443
-533.60284 -118.85899 4.2364478
-533.60284 -118.85899 4.2364531
-533.60284 -118.85899 4.2364597
-533.60248 -118.85913 4.2354245
-533.60248 -118.85913 4.2354279
-533.60248 -118.85913 4.2354302
-533.60248 -118.85912 4.2354331
-533.60248 -118.85912 4.2354374
-533.60248 -118.85912 4.2354388
-533.60248 -118.85912 4.2354426
-533.60254 -118.85911 4.2355795
-533.60254 -118.85911 4.2355828
-533.60254 -118.85911 4.2355819
-533.60254 -118.85911 4.2355804
-533.60254 -118.85911 4.235579
-533.60254 -118.85911 4.2355766
-533.5874 -118.18597 4.2185683
-533.5874 -118.18597 4.2185678
-533.5874 -118.18597 4.2185674
-533.5874 -118.18597 4.218565
-533.5874 -118.18597 4.2185655
-533.5874 -118.18597 4.2185645
-533.5874 -118.18597 4.2185612
-533.58734 -118.18599 4.2184482
-533.58734 -118.18599 4.2184434
-533.58734 -118.18599 4.2184381
-533.58734 -118.18599 4.2184329
-533.58734 -118.18599 4.2184305
-533.58734 -118.186 4.2184277
-533.58734 -118.186 4.2184243
-533.58734 -118.186 4.21842
-533.5874 -118.18597 4.2185535
-533.5874 -118.18597 4.2185493
-533.58734 -118.18597 4.2185435
-533.58734 -118.18598 4.2185364
-533.58734 -118.18598 4.2185349
-533.58734 -118.18598 4.2185292
-533.58734 -118.18598 4.218523
-533.58734 -118.18598 4.2185154
-533.58752 -118.18593 4.2188988
-533.58752 -118.18593 4.2188926
-533.58752 -118.18593 4.2188864
-533.58746 -118.18593 4.2188797
-533.58746 -118.18593 4.2188716
-533.58746 -118.18594 4.2188635
-533.58746 -118.18594 4.2188554
-533.58746 -118.18594 4.2188473
-533.58771 -118.18584 4.219471
-533.58771 -118.18585 4.2194624
-533.58771 -118.18585 4.2194467
-533.58771 -118.18585 4.2194357
-533.58771 -118.18585 4.2194262
-533.58771 -118.18586 4.2194157
-533.58771 -118.18586 4.2194047
-533.58746 -118.18594 4.2187729
-533.58746 -118.18594 4.218761
-533.58746 -118.18595 4.21875
-533.58746 -118.18595 4.2187386
-533.58746 -118.18595 4.2187257
-533.5874 -118.18595 4.2187142
-533.5874 -118.18595 4.2187033
-533.5874 -118.18596 4.2186913
-533.58704 -118.18612 4.2175441
-533.58704 -118.18612 4.2175326
-533.93872 -114.80725 4.1423244
-533.93872 -114.80725 4.1423182
-533.93872 -114.80725 4.142312
-533.93787 -114.80757 4.1399789
-533.93787 -114.80757 4.1399717
-533.93787 -114.80758 4.1399636
-533.93787 -114.80758 4.139955
-533.93811 -114.80749 4.1406231
-533.93811 -114.80749 4.140615
-533.93811 -114.80749 4.1406054
-533.93811 -114.80749 4.140595
-533.93811 -114.80749 4.1405873
-533.93811 -114.80749 4.1405768
-533.93805 -114.8075 4.1405663
-533.93805 -114.8075 4.1405563
-533.93781 -114.80759 4.1398191
-533.93781 -114.80759 4.1398087
-533.93781 -114.8076 4.1397986
-533.93781 -114.8076 4.1397882
-533.93781 -114.8076 4.1397724
-533.93781 -114.8076 4.1397595
-533.93781 -114.80761 4.1397452
-533.93781 -114.80761 4.1397314
-533.93805 -114.80751 4.1404095
-533.93799 -114.80752 4.1403971
-533.93799 -114.80752 4.1403852
-533.93799 -114.80752 4.1403732
-533.93799 -114.80752 4.140357
-533.93799 -114.80753 4.1403437
-533.93799 -114.80753 4.1403289
-533.93799 -114.80753 4.1403127
-533.93823 -114.80743 4.1409907
-533.93823 -114.80743 4.1409769
-533.93823 -114.80743 4.1409631
-533.93823 -114.80744 4.1409483
-533.93823 -114.80744 4.1409349
-533.93823 -114.80744 4.1409216
-533.93817 -114.80744 4.1409068
-533.93817 -114.80745 4.1408906
-533.93768 -114.80763 4.1395431
-533.93768 -114.80764 4.1395264
-533.93768 -114.80764 4.1395087
-533.93768 -114.80764 4.1394906
-533.93768 -114.80765 4.139472
-533.93768 -114.80765 4.1394525
-533.93768 -114.80765 4.1394329
-533.93768 -114.80766 4.1394138
-533.93781 -114.80759 4.1398215
-533.93781 -114.80759 4.1398029
-533.93781 -114.8076 4.1397853
-533.92267 -114.13445 4.1228695
-533.92267 -114.13446 4.1228523
-533.92267 -114.13446 4.1228361
-533.92267 -114.13446 4.1228204
-533.92267 -114.13446 4.1228037
-533.92249 -114.13453 4.1223216
-533.92249 -114.13454 4.122304
-533.92249 -114.13454 4.1222849
-533.92249 -114.13454 4.1222663
-533.92249 -114.13454 4.1222515
-533.92249 -114.13454 4.1222343
-533.92249 -114.13454 4.1222191
-533.92249 -114.13454 4.1222038
-533.92175 -114.13482 4.1202493
-533.92175 -114.13482 4.1202312
-533.92175 -114.13483 4.1202111
-533.92175 -114.13483 4.1201916
-533.92175 -114.13483 4.1201725
-533.92169 -114.13483 4.1201515
-533.92169 -114.13483 4.120131
-533.92169 -114.13483 4.1201105
-533.9223 -114.13461 4.1217442
-533.9223 -114.13461 4.121726
-533.9223 -114.13461 4.1217079
-533.9223 -114.13462 4.1216884
-533.92224 -114.13462 4.1216702
-533.92224 -114.13462 4.1216512
-533.92224 -114.13463 4.1216326
-533.92224 -114.13463 4.1216145
-533.92249 -114.13453 4.1223421
-533.92249 -114.13453 4.1223259
-533.92249 -114.13453 4.1223106
-533.92249 -114.13454 4.1222959
-533.92249 -114.13454 4.1222801
-533.92249 -114.13454 4.1222663
-533.92249 -114.13454 4.1222525
-533.92249 -114.13454 4.1222396
-533.92297 -114.13435 4.1235809
-533.92297 -114.13435 4.1235695
-533.92297 -114.13436 4.123559
-533.92291 -114.13436 4.1235485
-533.92291 -114.13436 4.1235375
-533.92291 -114.13436 4.123528
-533.92291 -114.13436 4.1235194
-533.92291 -114.13437 4.1235108
-533.9231 -114.13431 4.1239376
-533.9231 -114.13431 4.12393
-533.9231 -114.13431 4.1239233
-533.9231 -114.13431 4.1239171
-533.9231 -114.13431 4.12391
-533.90796 -113.46116 4.1070065
-533.90796 -113.46117 4.1070008
-533.90796 -113.46117 4.1069946
-533.90845 -113.46098 4.1083469
-533.90845 -113.46098 4.1083426
-533.90845 -113.46098 4.1083388
-533.90845 -113.46098 4.1083355
-533.90735 -113.46141 4.1052237
-533.90735 -113.46141 4.1052175
-533.90735 -113.46141 4.1052113
-533.90735 -113.46141 4.1052051
-533.90759 -113.46132 4.1059008
-533.90759 -113.46132 4.1058955
-533.90759 -113.46132 4.1058903
-533.90759 -113.46132 4.1058855
-533.90759 -113.46132 4.1058817
-533.90759 -113.46132 4.1058774
-533.90759 -113.46132 4.1058726
-533.90759 -113.46132 4.1058669
-533.9082 -113.46107 4.1077161
-533.9082 -113.46107 4.1077132
-533.9082 -113.46107 4.1077113
-533.9082 -113.46107 4.1077056
-533.9082 -113.46107 4.1077032
-533.9082 -113.46107 4.1077023
-533.9082 -113.46107 4.1077013
-533.909 -113.46077 4.1098394
-533.909 -113.46077 4.1098399
-533.909 -113.46077 4.1098404
-533.909 -113.46077 4.1098413
-533.909 -113.46077 4.1098399
-533.909 -113.46077 4.1098399
-533.909 -113.46077 4.1098413
-533.909 -113.46077 4.1098437
-533.90894 -113.4608 4.1096272
-533.90894 -113.4608 4.1096282
-533.90894 -113.4608 4.1096287
-533.90894 -113.4608 4.1096292
-533.90894 -113.4608 4.1096292
-533.90894 -113.4608 4.1096287
-533.90894 -113.4608 4.1096292
-533.90894 -113.4608 4.1096296
-533.90918 -113.4607 4.1103001
-533.90918 -113.4607 4.110301
-533.90918 -113.4607 4.1103015
-533.90918 -113.4607 4.110301
-533.90918 -113.4607 4.1103001
-533.90918 -113.4607 4.1102986
-533.90918 -113.4607 4.1102977
-533.90918 -113.46071 4.1102962
-533.90894 -113.46078 4.1097708
-534.2605 -110.08196 4.0341687
-534.2605 -110.08196 4.0341601
-534.2605 -110.08196 4.0341516
-534.26062 -110.08192 4.034451
-534.26062 -110.08192 4.0344448
-534.26062 -110.08192 4.0344381
-534.26062 -110.08192 4.0344305
-534.26062 -110.08192 4.0344243
-534.26062 -110.08193 4.0344176
-534.26062 -110.08193 4.034409
-534.26062 -110.08193 4.0344
-534.26074 -110.08189 4.0347047
-534.26074 -110.08189 4.034699
-534.26074 -110.08189 4.0346932
-534.26074 -110.08189 4.034688
-534.26074 -110.08189 4.0346847
-534.26068 -110.08189 4.0346794
-534.26068 -110.08189 4.0346732
-534.26068 -110.08189 4.0346665
-534.26068 -110.08189 4.0346694
-534.26068 -110.08189 4.0346642
-534.26068 -110.08189 4.0346589
-534.26068 -110.08189 4.0346546
-534.26068 -110.08189 4.0346551
-534.26068 -110.08189 4.0346522
-534.26068 -110.08189 4.0346494
-534.26068 -110.08189 4.034647
-534.25964 -110.08231 4.0316286
-534.25964 -110.08231 4.0316234
-534.25958 -110.08232 4.0316181
-534.25958 -110.08232 4.0316133
-534.25958 -110.08232 4.0316067
-534.25958 -110.08232 4.031601
-534.25958 -110.08232 4.0315957
-534.25958 -110.08232 4.0315924
-534.25928 -110.08244 4.0307164
-534.25928 -110.08244 4.0307121
-534.25928 -110.08244 4.0307074
-534.25928 -110.08244 4.0307035
-534.25928 -110.08244 4.0306945
-534.25928 -110.08244 4.0306883
-534.25928 -110.08245 4.0306816
-534.25928 -110.08245 4.0306749
-534.25873 -110.08266 4.0291839
-534.25873 -110.08266 4.0291758
-534.25873 -110.08266 4.0291677
-534.25873 -110.08266 4.0291591
-534.25745 -110.08315 4.0256529
-534.25745 -110.08315 4.0256414
-534.25745 -110.08315 4.02563
-534.25745 -110.08315 4.0256181
-534.2572 -110.08326 4.0248609
-534.24207 -109.41011 4.0079494
-534.24207 -109.41011 4.0079355
-534.24207 -109.41011 4.0079222
-534.24207 -109.41012 4.0079122
-534.24207 -109.41012 4.0078998
-534.24207 -109.41012 4.0078869
-534.24207 -109.41012 4.007874
-534.24243 -109.40999 4.0088258
-534.24237 -109.40999 4.0088139
-534.24237 -109.40999 4.0088015
-534.24237 -109.41 4.0087905
-534.24237 -109.41 4.0087829
-534.24237 -109.41 4.0087733
-534.24237 -109.41 4.0087633
-534.24237 -109.41 4.0087543
-534.24261 -109.4099 4.0094123
-534.24261 -109.4099 4.0094028
-534.24261 -109.40991 4.0093946
-534.24261 -109.40991 4.0093875
-534.24261 -109.40991 4.0093775
-534.24261 -109.40991 4.0093703
-534.24261 -109.40991 4.009366
-534.24261 -109.40991 4.0093613
-534.242 -109.41014 4.0077271
-534.242 -109.41014 4.0077186
-534.242 -109.41014 4.0077119
-534.242 -109.41014 4.0077057
-534.242 -109.41014 4.0077004
-534.242 -109.41015 4.0076966
-534.242 -109.41015 4.0076919
-534.242 -109.41015 4.0076876
-534.24225 -109.41005 4.0083728
-534.24225 -109.41005 4.0083699
-534.24225 -109.41005 4.0083666
-534.24225 -109.41005 4.0083623
-534.24225 -109.41005 4.0083575
-534.24225 -109.41006 4.0083523
-534.24225 -109.41006 4.0083461
-534.24225 -109.41006 4.0083394
-534.24225 -109.41004 4.0084429
-534.24225 -109.41004 4.0084362
-534.24225 -109.41004 4.0084286
-534.24225 -109.41004 4.0084214
-534.24225 -109.41004 4.0084133
-534.24225 -109.41005 4.0084047
-534.24225 -109.41005 4.0083933
-534.24225 -109.41005 4.0083814
-534.24261 -109.40991 4.0093536
-534.24261 -109.40992 4.0093417
-534.24255 -109.40992 4.0093288
-534.22748 -108.73677 3.9924197
-534.22748 -108.73677 3.9924152
-534.22748 -108.73677 3.9924061
-534.22748 -108.73678 3.9923897
-534.22699 -108.73697 3.991014
-534.22699 -108.73697 3.9910042
-534.22699 -108.73697 3.9909952
-534.22699 -108.73697 3.9909871
-534.22699 -108.73697 3.9909825
-534.22699 -108.73697 3.9909768
-534.22699 -108.73697 3.9909747
-534.22699 -108.73697 3.9909739
-534.22681 -108.73704 3.9904935
-534.22681 -108.73704 3.9904928
-534.22681 -108.73704 3.9904923
-534.22681 -108.73704 3.9904907
-534.22681 -108.73704 3.9904854
-534.22681 -108.73704 3.9904821
-534.22681 -108.73704 3.9904797
-534.22681 -108.73704 3.990478
-534.22693 -108.73698 3.9908984
-534.22693 -108.73698 3.9908984
-534.22693 -108.73698 3.9908977
-534.22693 -108.73698 3.9908955
-534.22693 -108.73698 3.9908938
-534.22693 -108.73698 3.990891
-534.22693 -108.73698 3.9908881
-534.22693 -108.73698 3.9908841
-534.22675 -108.73705 3.9904063
-534.22675 -108.73705 3.9904046
-534.22675 -108.73705 3.9904029
-534.22675 -108.73705 3.9904001
-534.22675 -108.73705 3.9904006
-534.22675 -108.73705 3.9903996
-534.22675 -108.73705 3.9903967
-534.22675 -108.73705 3.9903944
-534.22723 -108.73687 3.9917216
-534.22723 -108.73687 3.9917233
-534.22723 -108.73687 3.991725
-534.22723 -108.73687 3.9917274
-534.22723 -108.73687 3.9917319
-534.22723 -108.73687 3.9917343
-534.22723 -108.73687 3.9917352
-534.22723 -108.73687 3.9917364
-534.22565 -108.73749 3.9872518
-534.22565 -108.73749 3.9872468
-534.22565 -108.73749 3.987241
-534.22565 -108.73749 3.987237
-534.22516 -108.73766 3.9859991
-534.22516 -108.73766 3.9859924
-534.22516 -108.73766 3.9859867
-534.21008 -108.06451 3.9690831
-534.21033 -108.06442 3.9697762
-534.21033 -108.06442 3.9697692
-534.21033 -108.06442 3.969763
-534.21033 -108.06442 3.9697568
-534.21033 -108.06442 3.9697454
-534.21033 -108.06443 3.969738
-534.21033 -108.06443 3.9697318
-534.21033 -108.06443 3.9697254
-534.21027 -108.06445 3.9695911
-534.21027 -108.06445 3.9695847
-534.21027 -108.06445 3.9695802
-534.21027 -108.06445 3.9695745
-534.21027 -108.06445 3.9695642
-534.21027 -108.06445 3.969558
-534.21027 -108.06445 3.9695518
-534.21027 -108.06445 3.9695437
-534.21039 -108.06439 3.9699719
-534.55756 -104.68728 3.882139
-534.55756 -104.68728 3.8821185
-534.55756 -104.68729 3.8820975
-534.55756 -104.68729 3.8820758
-534.5575 -104.6873 3.8820016
-534.5575 -104.6873 3.8819795
-534.5575 -104.6873 3.8819556
-534.5575 -104.68731 3.8819323
-534.5575 -104.68731 3.881918
-534.5575 -104.68731 3.881897
-534.5575 -104.68732 3.8818753
-534.5575 -104.68732 3.8818543
-534.55768 -104.68723 3.8825011
-534.55768 -104.68723 3.882479
-534.55768 -104.68723 3.8824561
-534.55768 -104.68724 3.8824327
-534.55768 -104.68724 3.8824122
-534.55768 -104.68725 3.8823888
-534.55768 -104.68725 3.8823662
-534.55762 -104.68725 3.8823445
-534.55768 -104.68723 3.8825033
-534.55768 -104.68723 3.8824794
-534.55768 -104.68723 3.8824549
-534.55768 -104.68724 3.8824298
-534.55768 -104.68724 3.8824036
-534.55768 -104.68725 3.8823769
-534.55762 -104.68725 3.8823502
-534.55762 -104.68726 3.8823228
-534.55798 -104.68713 3.8832099
-534.55792 -104.68713 3.8831844
-534.55792 -104.68714 3.8831587
-534.55792 -104.68714 3.8831325
-534.55792 -104.68714 3.8831081
-534.55792 -104.68715 3.8830824
-534.55792 -104.68715 3.8830562
-534.55786 -104.68716 3.883029
-534.55804 -104.6871 3.8834343
-534.55804 -104.6871 3.8834109
-534.55804 -104.6871 3.8833888
-534.55798 -104.68711 3.8833678
-534.55786 -104.68717 3.8829339
-534.55786 -104.68717 3.8829207
-534.55786 -104.68717 3.8829081
-534.55786 -104.68717 3.8828962
-534.55798 -104.68713 3.8832562
-534.55798 -104.68713 3.8832452
-534.55798 -104.68713 3.8832357
-534.55798 -104.68713 3.8832271
-534.55798 -104.68713 3.8832145
-534.55798 -104.68713 3.8832054
-534.55792 -104.68713 3.8831964
-534.55792 -104.68713 3.883189
-534.5434 -104.01379 3.8677175
-534.54333 -104.01379 3.8677113
-534.54333 -104.01379 3.8677044
-534.54333 -104.01379 3.8676965
-534.54333 -104.01379 3.8676903
-534.54333 -104.01379 3.8676834
-534.54333 -104.01379 3.867676
-534.54333 -104.01379 3.8676682
-534.54388 -104.0136 3.8690801
-534.54382 -104.0136 3.8690739
-534.54382 -104.0136 3.8690677
-534.54382 -104.0136 3.8690603
-534.54382 -104.0136 3.8690522
-534.54382 -104.0136 3.8690455
-534.54382 -104.0136 3.8690391
-534.54382 -104.0136 3.8690329
-534.5437 -104.01365 3.8687248
-534.5437 -104.01365 3.8687174
-534.5437 -104.01365 3.8687105
-534.5437 -104.01365 3.8687043
-534.5437 -104.01365 3.8686998
-534.5437 -104.01365 3.8686953
-534.5437 -104.01365 3.8686912
-534.5437 -104.01365 3.8686891
-534.54388 -104.01357 3.8692412
-534.54388 -104.01357 3.8692384
-534.54388 -104.01357 3.8692355
-534.54388 -104.01357 3.8692334
-534.54388 -104.01357 3.8692322
-534.54388 -104.01357 3.8692305
-534.54388 -104.01358 3.8692281
-534.54388 -104.01358 3.8692272
-534.54382 -104.01362 3.8689275
-534.54382 -104.01362 3.8689282
-534.54382 -104.01362 3.8689282
-534.54382 -104.01362 3.8689291
-534.54382 -104.01362 3.8689303
-534.54382 -104.01362 3.8689311
-534.54382 -104.01362 3.8689299
-534.54382 -104.01362 3.868927
-534.5437 -104.01366 3.8686326
-534.5437 -104.01366 3.8686321
-534.5437 -104.01366 3.8686326
-534.5437 -104.01366 3.8686333
-534.5437 -104.01366 3.8686314
-534.5437 -104.01366 3.8686314
-534.5437 -104.01366 3.8686314
-534.5437 -104.01366 3.8686314
-534.52832 -103.34061 3.8510158
-534.52832 -103.34061 3.851017
-534.52832 -103.34061 3.8510203
-534.52832 -103.34061 3.8510256
-534.52832 -103.34061 3.8510289
-534.52832 -103.34061 3.8510346
-534.52838 -103.34061 3.8510413
-534.52838 -103.34061 3.8510482
-534.5285 -103.34055 3.8514128
-534.5285 -103.34055 3.8514211
-534.5285 -103.34055 3.8514304
-534.5285 -103.34055 3.8514411
-534.5285 -103.34055 3.8514502
-534.5285 -103.34055 3.8514612
-534.5285 -103.34055 3.8514731
-534.5285 -103.34055 3.8514855
-534.52856 -103.34052 3.8516352
-534.52856 -103.34052 3.8516479
-534.52856 -103.34052 3.8516603
-534.52856 -103.34052 3.8516712
-534.52856 -103.34052 3.8516815
-534.52856 -103.34052 3.851691
-534.52856 -103.34052 3.851702
-534.52856 -103.34052 3.8517122
-534.52875 -103.34046 3.8520749
-534.52875 -103.34046 3.8520856
-534.52875 -103.34046 3.8520954
-534.52875 -103.34046 3.8521044
-534.52875 -103.34045 3.8521187
-534.52875 -103.34045 3.852129
-534.52875 -103.34045 3.8521397
-534.52875 -103.34045 3.8521512
-534.52875 -103.34046 3.8520801
-534.52875 -103.34046 3.8520925
-534.52875 -103.34046 3.8521044
-534.52875 -103.34046 3.8521159
-534.52875 -103.34045 3.8521307
-534.52875 -103.34045 3.8521438
-534.52875 -103.34045 3.8521593
-534.52875 -103.34045 3.852175
-534.52661 -103.34129 3.846169
-534.52661 -103.34129 3.846173
-534.52661 -103.34129 3.8461776
-534.52661 -103.34129 3.8461816
-534.52655 -103.34132 3.845947
-534.52655 -103.34132 3.8459492
-534.52655 -103.34132 3.8459527
-534.87476 -99.963799 3.7610319
-534.87476 -99.963799 3.7610114
-534.87488 -99.963753 3.7613437
-534.87488 -99.963753 3.7613318
-534.87488 -99.963753 3.7613194
-534.87482 -99.96376 3.7613063
-534.87482 -99.96376 3.7612982
-534.87482 -99.96376 3.7612875
-534.87482 -99.96376 3.7612772
-534.87482 -99.96376 3.7612674
-534.87482 -99.963768 3.7612481
-534.87482 -99.963768 3.7612379
-534.87482 -99.963768 3.7612276
-534.87482 -99.963768 3.7612162
-534.87482 -99.963768 3.7612078
-534.87482 -99.963776 3.7611992
-534.87482 -99.963776 3.7611928
-534.87482 -99.963776 3.7611883
-534.87439 -99.963921 3.760123
-534.87439 -99.963921 3.7601178
-534.87439 -99.963921 3.7601132
-534.87439 -99.963921 3.7601094
-534.87439 -99.963921 3.7601054
-534.87439 -99.963928 3.760102
-534.87439 -99.963928 3.7600992
-534.87439 -99.963928 3.7600996
-534.87463 -99.963829 3.7608001
-534.87463 -99.963829 3.7608018
-534.87463 -99.963829 3.760803
-534.87463 -99.963829 3.7608039
-534.87469 -99.963829 3.7608075
-534.87469 -99.963829 3.7608085
-534.87469 -99.963829 3.7608092
-534.87469 -99.963829 3.7608097
-534.87433 -99.963951 3.7599368
-534.87433 -99.963951 3.7599373
-534.87433 -99.963951 3.7599385
-534.87433 -99.963951 3.7599385
-534.87433 -99.963951 3.7599328
-534.87433 -99.963951 3.7599299
-534.87433 -99.963951 3.7599266
-534.87433 -99.963951 3.7599225
-534.87421 -99.963997 3.7595747
-534.87421 -99.963997 3.7595701
-534.87421 -99.963997 3.7595668
-534.87421 -99.963997 3.7595649
-534.87421 -99.963997 3.7595611
-534.87421 -99.963997 3.7595575
-534.87421 -99.964005 3.759552
-534.85913 -99.290855 3.7426486
-534.85901 -99.290901 3.7423069
-534.85901 -99.290901 3.7423019
-534.85901 -99.290901 3.7422974
-534.85901 -99.290901 3.7422929
-534.85901 -99.290901 3.7422905
-534.85901 -99.290901 3.742286
-534.85901 -99.290901 3.7422807
-534.85901 -99.290909 3.7422745
-534.85895 -99.290932 3.7421021
-534.85895 -99.290932 3.7420969
-534.85895 -99.290932 3.7420919
-534.85895 -99.290932 3.7420866
-534.85889 -99.290932 3.7420805
-534.85889 -99.290932 3.7420747
-534.85889 -99.290932 3.7420685
-534.85889 -99.290932 3.7420616
-534.85876 -99.290985 3.7417154
-534.85876 -99.290985 3.7417076
-534.85876 -99.290985 3.741699
-534.85876 -99.290985 3.7416892
-534.85876 -99.290985 3.7416801
-534.85876 -99.290993 3.7416711
-534.85876 -99.290993 3.7416618
-534.85876 -99.290993 3.7416523
-534.85876 -99.290993 3.7416515
-534.85876 -99.290993 3.7416413
-534.85876 -99.290993 3.7416301
-534.85876 -99.291 3.7416186
-534.85876 -99.291 3.7416079
-534.85876 -99.291 3.7415965
-534.85876 -99.291 3.7415845
-534.8587 -99.291 3.7415731
-534.85852 -99.291077 3.7410493
-534.85852 -99.291077 3.7410367
-534.85852 -99.291077 3.7410231
-534.85852 -99.291084 3.74101
-534.85852 -99.291084 3.7409973
-534.85852 -99.291084 3.7409842
-534.85852 -99.291084 3.7409718
-534.85852 -99.291084 3.7409604
-534.8584 -99.291138 3.7406166
-534.8584 -99.291138 3.7406051
-534.8584 -99.291138 3.7405937
-534.8584 -99.291138 3.7405818
-534.85724 -99.29158 3.7374108
-534.85724 -99.29158 3.7373965
-534.85724 -99.291588 3.7373822
-534.85724 -99.291588 3.7373693
-534.8573 -99.291557 3.7375617
-534.8573 -99.291565 3.7375486
-534.84216 -98.618416 3.7206373
-534.84216 -98.618416 3.7206237
-534.84216 -98.618423 3.7206073
-534.84216 -98.618423 3.7205913
-534.84216 -98.618423 3.7205749
-534.84216 -98.618423 3.7205572
-534.84241 -98.618332 3.7212415
-534.84241 -98.618332 3.7212245
-534.84241 -98.61834 3.721209
-534.84241 -98.61834 3.7211931
-534.84241 -98.61834 3.7211733
-534.84241 -98.61834 3.7211578
-534.84235 -98.618347 3.7211425
-534.84235 -98.618347 3.7211254
-534.84247 -98.618301 3.7214704
-534.84247 -98.618301 3.7214515
-534.84247 -98.618301 3.7214339
-534.84247 -98.618309 3.721417
-534.84247 -98.618309 3.7213976
-534.84247 -98.618309 3.7213805
-534.84247 -98.618317 3.7213633
-534.84247 -98.618317 3.7213464
-534.84241 -98.61834 3.7211914
-534.84241 -98.61834 3.7211726
-534.84235 -98.618347 3.7211533
-534.84235 -98.618347 3.7211339
-534.84235 -98.618347 3.7211168
-534.84235 -98.618355 3.7210963
-534.84235 -98.618355 3.7210753
-534.84235 -98.618355 3.7210531
-534.84259 -98.618263 3.7217336
-534.84259 -98.618263 3.7217131
-534.84259 -98.618271 3.7216926
-534.84259 -98.618271 3.7216725
-534.84253 -98.618271 3.7216549
-534.84253 -98.618279 3.7216349
-534.84253 -98.618279 3.7216144
-534.84253 -98.618286 3.7215939
-534.84259 -98.618256 3.7217739
-534.84259 -98.618263 3.7217546
-534.84259 -98.618263 3.7217345
-534.84259 -98.618263 3.7217152
-534.84259 -98.618271 3.7216954
-534.84259 -98.618271 3.7216759
-534.84253 -98.618271 3.7216578
-534.84253 -98.618279 3.7216396
-534.84259 -98.618256 3.7218132
-534.84259 -98.618256 3.7217944
-534.84259 -98.618256 3.7217762
-534.84259 -98.618263 3.7217574
-534.84259 -98.618263 3.7217324
-535.19116 -95.240616 3.6377425
-535.1911 -95.240623 3.6377084
-535.1911 -95.240623 3.6376755
-535.1911 -95.240631 3.6376424
-535.1911 -95.240631 3.6376104
-535.1911 -95.240639 3.6375797
-535.1911 -95.240639 3.6375489
-535.19104 -95.240646 3.6375189
-535.1911 -95.240623 3.637681
-535.1911 -95.240631 3.6376503
-535.1911 -95.240631 3.6376185
-535.1911 -95.240639 3.6375866
-535.1911 -95.240639 3.6375599
-535.19104 -95.240646 3.6375284
-535.19104 -95.240646 3.6374977
-535.19104 -95.240654 3.6374688
-535.19086 -95.240738 3.6368721
-535.1908 -95.240738 3.6368442
-535.1908 -95.240746 3.6368155
-535.1908 -95.240746 3.6367865
-535.1908 -95.240753 3.6367564
-535.1908 -95.240753 3.6367257
-535.19073 -95.240761 3.6366944
-535.19073 -95.240768 3.636663
-535.19073 -95.240761 3.6366785
-535.19073 -95.240768 3.6366482
-535.19073 -95.240768 3.6366191
-535.19073 -95.240776 3.6365912
-535.19073 -95.240784 3.6365554
-535.19067 -95.240784 3.6365242
-535.19067 -95.240791 3.6364939
-535.19067 -95.240791 3.6364636
-535.19055 -95.240837 3.6361732
-535.19055 -95.240837 3.636142
-535.19055 -95.240845 3.6361113
-535.19055 -95.240845 3.6360805
-535.19055 -95.240852 3.6360493
-535.19049 -95.240852 3.6360178
-535.19049 -95.24086 3.6359861
-535.19049 -95.24086 3.6359541
-535.18939 -95.24128 3.6329539
-535.18939 -95.241287 3.6329226
-535.18939 -95.241287 3.6328895
-535.18939 -95.241295 3.6328559
-535.18982 -95.241127 3.6340699
-535.18982 -95.241127 3.634038
-535.18982 -95.241135 3.6340067
-535.18976 -95.241142 3.6339755
-535.18988 -95.241096 3.6343017
-535.18988 -95.241096 3.6342721
-535.18988 -95.241104 3.6342425
-535.1748 -94.567955 3.6173139
-535.17474 -94.567963 3.6172848
-535.17474 -94.567963 3.617254
-535.17474 -94.56797 3.6172233
-535.17474 -94.567978 3.6171937
-535.17456 -94.568031 3.6167798
-535.17456 -94.568039 3.616749
-535.17456 -94.568039 3.6167188
-535.17456 -94.568047 3.6166892
-535.17456 -94.568047 3.6166589
-535.17456 -94.568054 3.6166294
-535.1745 -94.568054 3.6166003
-535.1745 -94.568062 3.6165712
-535.17438 -94.568115 3.616159
-535.17438 -94.568123 3.6161282
-535.17432 -94.568123 3.616097
-535.17432 -94.56813 3.6160657
-535.17432 -94.568138 3.616035
-535.17432 -94.568138 3.6160035
-535.17432 -94.568146 3.6159728
-535.17432 -94.568146 3.615942
-535.1745 -94.568062 3.6165605
-535.1745 -94.568069 3.6165304
-535.1745 -94.568069 3.6165001
-535.1745 -94.568077 3.6164682
-535.17444 -94.568077 3.6164317
-535.17444 -94.568085 3.6163988
-535.17444 -94.568092 3.6163664
-535.17444 -94.568092 3.616334
-535.17438 -94.568108 3.6162148
-535.17438 -94.568115 3.616184
-535.17438 -94.568115 3.616154
-535.17438 -94.568123 3.6161244
-535.17432 -94.56813 3.6160941
-535.17432 -94.56813 3.6160645
-535.17432 -94.568138 3.6160333
-535.17432 -94.568138 3.6160007
-535.17419 -94.568176 3.6157467
-535.17419 -94.568176 3.6157167
-535.17419 -94.568184 3.6156864
-535.17419 -94.568192 3.6156569
-535.17419 -94.568192 3.6156335
-535.17419 -94.568192 3.6156061
-535.17413 -94.568199 3.6155772
-535.17413 -94.568207 3.6155469
-535.17438 -94.568115 3.6161749
-535.17438 -94.568123 3.6161442
-535.17438 -94.568123 3.6161129
-535.17432 -94.56813 3.6160822
-535.17432 -94.56813 3.6160548
-535.15924 -93.894989 3.5991273
-535.15924 -93.894989 3.5990973
-535.15918 -93.894997 3.5990658
-535.15918 -93.895012 3.5989492
-535.15912 -93.89502 3.5989172
-535.15912 -93.89502 3.5988865
-535.15912 -93.895027 3.5988557
-535.15912 -93.895027 3.5988221
-535.15912 -93.895035 3.5987902
-535.15912 -93.895042 3.5987585
-535.15906 -93.895042 3.598727
-535.15887 -93.895119 3.5981662
-535.15887 -93.895126 3.5981326
-535.15887 -93.895134 3.5980985
-535.15881 -93.895134 3.5980637
-535.15881 -93.895142 3.5980284
-535.15881 -93.895149 3.5979924
-535.15881 -93.895149 3.5979571
-535.15881 -93.895157 3.5979218
-535.15924 -93.894966 3.5992582
-535.15924 -93.894974 3.5992241
-535.15924 -93.894981 3.5991893
-535.15924 -93.894981 3.599153
-535.15924 -93.894989 3.5991178
-535.15918 -93.894997 3.5990813
-535.15918 -93.894997 3.5990453
-535.15961 -93.894852 3.6001153
-535.15955 -93.894859 3.6000817
-535.15955 -93.894859 3.6000476
-535.15955 -93.894867 3.6000128
-535.15955 -93.894867 3.5999751
-535.15948 -93.894875 3.5999398
-535.15948 -93.894882 3.5999045
-535.15948 -93.894882 3.5998697
-535.15936 -93.894943 3.5994496
-535.1593 -93.894951 3.599416
-535.1593 -93.894951 3.5993819
-535.1593 -93.894958 3.5993476
-535.15839 -93.895309 3.5967922
-535.15839 -93.895317 3.5967574
-535.15839 -93.895325 3.5967238
-535.15833 -93.895325 3.5966902
-535.15826 -93.895363 3.5964489
-535.15826 -93.895363 3.5964158
-535.15826 -93.89537 3.5963817
-535.1582 -93.895378 3.5963464
-535.1582 -93.895378 3.5963123
-535.1582 -93.895386 3.5962763
-535.1582 -93.895386 3.5962405
-535.14307 -93.222244 3.5793078
-535.14301 -93.222282 3.579067
-535.14301 -93.222282 3.579031
-535.14294 -93.22229 3.5789952
-535.14294 -93.222298 3.5789583
-535.14294 -93.222298 3.5789223
-535.14294 -93.222305 3.5788853
-535.14294 -93.222313 3.5788488
-535.14288 -93.222313 3.5788131
-535.14288 -93.222328 3.5787106
-535.14288 -93.222336 3.5786741
-535.14282 -93.222336 3.5786383
-535.14282 -93.222343 3.5786018
-535.14282 -93.222351 3.5785658
-535.14282 -93.222351 3.5785306
-535.14276 -93.222359 3.5784953
-535.14276 -93.222366 3.5784605
-535.14282 -93.222359 3.5785043
-535.14276 -93.222359 3.5784698
-535.14276 -93.222366 3.5784349
-535.14276 -93.222374 3.5783997
-535.14276 -93.222374 3.5783644
-535.1427 -93.222382 3.5783291
-535.1427 -93.222389 3.5782938
-535.1427 -93.222389 3.5782585
-535.14294 -93.222305 3.5788763
-535.14294 -93.222313 3.578841
-535.14288 -93.222313 3.5788057
-535.14288 -93.222321 3.5787704
-535.14288 -93.222328 3.5787356
-535.14288 -93.222328 3.5786991
-535.14282 -93.222336 3.5786626
-535.14282 -93.222343 3.5786257
-535.14276 -93.222374 3.5783894
-535.14276 -93.222382 3.5783534
-535.1427 -93.222382 3.5783193
-535.1427 -93.222389 3.5782857
-535.1427 -93.222389 3.5782516
-535.1427 -93.222397 3.578218
-535.1427 -93.222404 3.5781832
-535.14264 -93.222404 3.5781486
-535.14246 -93.222496 3.5774875
-535.1424 -93.222504 3.5774534
-535.1424 -93.222511 3.5774209
-535.1424 -93.222511 3.5773895
-535.1424 -93.222519 3.5773571
-535.1424 -93.222519 3.5773268
-535.14233 -93.222527 3.5772967
-535.14233 -93.222527 3.5772665
-535.14252 -93.222466 3.57775
-535.50165 -90.519722 3.4980044
-535.50165 -90.519722 3.4979711
-535.50159 -90.51973 3.4979367
-535.50159 -90.519737 3.4979026
-535.50159 -90.519737 3.4978685
-535.50159 -90.519745 3.4978342
-535.50153 -90.519768 3.4976931
-535.50153 -90.519768 3.4976602
-535.50153 -90.519775 3.4976265
-535.50146 -90.519775 3.4975929
-535.50146 -90.519783 3.4975593
-535.50146 -90.519791 3.4975252
-535.50146 -90.519791 3.4974916
-535.50146 -90.519798 3.4974585
-535.5014 -90.519814 3.4973214
-535.5014 -90.519821 3.4972894
-535.50134 -90.519821 3.4972579
-535.50134 -90.519829 3.4972274
-535.50134 -90.519836 3.4971967
-535.50134 -90.519836 3.4971659
-535.50134 -90.519844 3.4971344
-535.50128 -90.519844 3.4971037
-535.50153 -90.519768 3.4976435
-535.50146 -90.519775 3.4976118
-535.50146 -90.519783 3.4975791
-535.50146 -90.519783 3.4975467
-535.50146 -90.519791 3.4975178
-535.50146 -90.519791 3.4974852
-535.50146 -90.519798 3.4974523
-535.5014 -90.519806 3.4974182
-535.50146 -90.519783 3.4975474
-535.50146 -90.519791 3.4975109
-535.50146 -90.519798 3.497474
-535.5014 -90.519798 3.4974358
-535.5014 -90.519806 3.4974022
-535.5014 -90.519814 3.4973645
-535.5014 -90.519814 3.4973264
-535.5014 -90.519821 3.4972882
-535.50134 -90.519821 3.4972768
-535.50134 -90.519829 3.4972382
-535.50134 -90.519836 3.4971995
-535.50134 -90.519836 3.4971602
-535.50134 -90.519844 3.4971204
-535.50128 -90.519852 3.497081
-535.50128 -90.519852 3.4970429
-535.50128 -90.519859 3.4970031
-535.50122 -90.519882 3.4968567
-535.50122 -90.51989 3.4968174
-535.50122 -90.51989 3.4967787
-535.50116 -90.519897 3.4967399
-535.50116 -90.519905 3.4967024
-535.48608 -89.846756 3.4797668
-535.48602 -89.846764 3.4797294
-535.48602 -89.846771 3.4796913
-535.48608 -89.846748 3.479821
-535.48608 -89.846756 3.4797823
-535.48602 -89.846764 3.4797437
-535.48602 -89.846771 3.4797049
-535.48602 -89.846771 3.479665
-535.48602 -89.846779 3.4796257
-535.48602 -89.846786 3.4795864
-535.48596 -89.846786 3.4795461
-535.48615 -89.846718 3.480088
-535.48615 -89.846718 3.4800482
-535.48615 -89.846725 3.4800084
-535.48615 -89.846733 3.4799681
-535.48615 -89.846733 3.4799271
-535.48608 -89.846741 3.4798861
-535.48608 -89.846748 3.4798431
-535.48608 -89.846756 3.4798
-535.48627 -89.84668 3.4803393
-535.48627 -89.846687 3.4802947
-535.48621 -89.846695 3.4802499
-535.48621 -89.846695 3.480206
-535.48621 -89.846703 3.4801638
-535.48621 -89.84671 3.4801195
-535.48615 -89.846718 3.4800739
-535.48615 -89.846725 3.4800277
-535.48621 -89.846703 3.4801514
-535.48621 -89.84671 3.480103
-535.48615 -89.846718 3.4800539
-535.48615 -89.846725 3.4800055
-535.48615 -89.846733 3.4799633
-535.48608 -89.846741 3.4799168
-535.48608 -89.846748 3.4798689
-535.48608 -89.846748 3.4798222
-535.4859 -89.846809 3.4793935
-535.4859 -89.846817 3.4793468
-535.4859 -89.846825 3.4792988
-535.4859 -89.846832 3.4792523
-535.48547 -89.846992 3.4780633
-535.48541 -89.847 3.4780228
-535.48541 -89.847008 3.4779825
-535.48541 -89.847015 3.4779427
-535.48541 -89.847015 3.4779437
-535.48541 -89.847015 3.477905
-535.48535 -89.847023 3.4778664
-535.48535 -89.847031 3.4778271
-535.48535 -89.847031 3.4777894
-535.48535 -89.847038 3.4777508
-535.48535 -89.847046 3.4777126
-535.48529 -89.847046 3.4776745
-535.48535 -89.847031 3.4778116
-535.48535 -89.847038 3.4777741
-535.47021 -89.173889 3.4608393
-535.47021 -89.173897 3.4608011
-535.47021 -89.173904 3.4607642
-535.47021 -89.173912 3.4607265
-535.47015 -89.173912 3.4606895
-535.47015 -89.17392 3.4606526
-535.47034 -89.173843 3.4611871
-535.47034 -89.173851 3.4611502
-535.47034 -89.173851 3.4611144
-535.47034 -89.173859 3.4610772
-535.47034 -89.173866 3.4610353
-535.47028 -89.173874 3.4609976
-535.47028 -89.173874 3.4609623
-535.47028 -89.173882 3.4609275
-535.47034 -89.173843 3.4611974
-535.47034 -89.173851 3.4611638
-535.47034 -89.173851 3.4611297
-535.47034 -89.173859 3.4610949
-535.47034 -89.173866 3.4610558
-535.47028 -89.173866 3.4610198
-535.47028 -89.173874 3.4609845
-535.47028 -89.173874 3.4609492
-535.47052 -89.173782 3.461628
-535.47052 -89.17379 3.4615955
-535.47052 -89.17379 3.4615624
-535.47046 -89.173798 3.4615288
-535.47046 -89.173805 3.461494
-535.47046 -89.173805 3.4614611
-535.47046 -89.173813 3.461427
-535.47046 -89.173813 3.4613922
-535.47058 -89.173759 3.4618049
-535.47058 -89.173759 3.4617724
-535.47058 -89.173767 3.46174
-535.47052 -89.173775 3.4617076
-535.47052 -89.173775 3.461678
-535.47052 -89.173782 3.4616473
-535.47052 -89.173782 3.461616
-535.47052 -89.17379 3.4615841
-535.4707 -89.173714 3.4621317
-535.4707 -89.173714 3.462101
-535.4707 -89.173721 3.4620693
-535.47064 -89.173729 3.4620373
-535.47064 -89.173729 3.4620111
-535.47064 -89.173737 3.4619808
-535.47064 -89.173737 3.4619496
-535.47064 -89.173744 3.4619195
-535.47107 -89.173569 3.4631464
-535.47107 -89.173576 3.4631164
-535.47107 -89.173584 3.4630857
-535.47101 -89.173584 3.4630542
-535.47101 -89.173592 3.463028
-535.47101 -89.173592 3.4629979
-535.45593 -88.50045 3.4460704
-535.45587 -88.50045 3.4460421
-535.45612 -88.500359 3.4467237
-535.45612 -88.500359 3.4466958
-535.45612 -88.500366 3.4466679
-535.45612 -88.500366 3.446641
-535.45612 -88.500374 3.4466138
-535.45612 -88.500374 3.4465876
-535.45612 -88.500381 3.446563
-535.45605 -88.500381 3.4465384
-535.45605 -88.500381 3.4465363
-535.45605 -88.500389 3.4465113
-535.45605 -88.500389 3.4464884
-535.45605 -88.500397 3.4464662
-535.45605 -88.500397 3.4464383
-535.45605 -88.500397 3.4464157
-535.45605 -88.500404 3.446394
-535.45599 -88.500404 3.4463735
-535.45654 -88.500198 3.4478829
-535.45654 -88.500198 3.4478624
-535.45654 -88.500198 3.4478436
-535.45654 -88.500206 3.4478259
-535.45654 -88.500206 3.4478099
-535.45654 -88.500206 3.4477942
-535.45654 -88.500214 3.4477787
-535.45654 -88.500214 3.4477627
-535.45636 -88.500267 3.4473586
-535.45636 -88.500275 3.4473443
-535.45636 -88.500275 3.4473307
-535.45636 -88.500275 3.4473157
-535.45636 -88.500275 3.4473066
-535.45636 -88.500275 3.4472959
-535.45636 -88.500282 3.4472849
-535.45636 -88.500282 3.447273
-535.45514 -88.50074 3.4439449
-535.45514 -88.500748 3.4439297
-535.45514 -88.500748 3.4439147
-535.45514 -88.500748 3.4438989
-535.45538 -88.500656 3.4445827
-535.45538 -88.500656 3.4445679
-535.45538 -88.500656 3.4445524
-535.45538 -88.500664 3.4445372
-535.45551 -88.500603 3.4449568
-535.45551 -88.500603 3.4449413
-535.45551 -88.50061 3.4449265
-535.45551 -88.50061 3.4449124
-535.45551 -88.50061 3.4448965
-535.45551 -88.50061 3.44488
-535.45551 -88.500618 3.4448628
-535.45544 -88.500618 3.4448457
-535.45569 -88.500526 3.4455245
-535.45569 -88.500526 3.4455063
-535.45569 -88.500526 3.4454875
-535.80444 -85.122803 3.3620665
-535.80444 -85.122803 3.3620484
-535.80444 -85.12281 3.3620312
-535.80444 -85.12281 3.3620136
-535.80438 -85.122826 3.3619013
-535.80438 -85.122826 3.3618827
-535.80438 -85.122833 3.3618627
-535.80438 -85.122833 3.3618422
-535.80438 -85.122833 3.3618221
-535.80438 -85.122841 3.3618023
-535.80438 -85.122841 3.3617823
-535.80438 -85.122849 3.3617613
-535.8042 -85.122917 3.3612545
-535.80414 -85.122917 3.3612335
-535.80414 -85.122925 3.361213
-535.80414 -85.122925 3.3611903
-535.80414 -85.122925 3.3611679
-535.80414 -85.122932 3.3611457
-535.80414 -85.122932 3.3611231
-535.80414 -85.12294 3.3610997
-535.80408 -85.122955 3.3609931
-535.80408 -85.122955 3.3609722
-535.80408 -85.122955 3.36095
-535.80408 -85.122963 3.3609271
-535.80408 -85.122963 3.3609054
-535.80402 -85.122971 3.3608828
-535.80402 -85.122971 3.3608582
-535.80402 -85.122971 3.3608332
-535.8042 -85.122917 3.3612585
-535.80414 -85.122917 3.3612347
-535.80414 -85.122925 3.3612113
-535.80414 -85.122925 3.3611884
-535.80414 -85.122925 3.3611658
-535.80414 -85.122932 3.3611412
-535.80414 -85.122932 3.3611166
-535.80414 -85.12294 3.3610916
-535.80438 -85.122841 3.361779
-535.80438 -85.122849 3.3617539
-535.80432 -85.122849 3.3617289
-535.80432 -85.122856 3.3617055
-535.80432 -85.122856 3.3616827
-535.80432 -85.122856 3.3616588
-535.80432 -85.122864 3.3616343
-535.80432 -85.122864 3.3616109
-535.80438 -85.122849 3.3617613
-535.80432 -85.122849 3.3617363
-535.80432 -85.122849 3.3617117
-535.80432 -85.122856 3.3616879
-535.80432 -85.122856 3.3616645
-535.80432 -85.122864 3.36164
-535.80432 -85.122864 3.3616149
-535.78918 -84.449722 3.3446929
-535.78912 -84.449753 3.3444395
-535.78912 -84.44976 3.3444133
-535.78906 -84.44976 3.3443859
-535.78906 -84.449768 3.3443587
-535.78906 -84.449768 3.3443313
-535.78906 -84.449776 3.3443041
-535.78906 -84.449776 3.3442771
-535.78906 -84.449783 3.3442509
-535.78937 -84.449646 3.345211
-535.78937 -84.449654 3.3451843
-535.78937 -84.449654 3.3451581
-535.78937 -84.449661 3.3451307
-535.78937 -84.449661 3.3451006
-535.78937 -84.449669 3.3450727
-535.78931 -84.449669 3.3450465
-535.78931 -84.449677 3.3450208
-535.78912 -84.449745 3.3444908
-535.78912 -84.449753 3.344465
-535.78912 -84.449753 3.344439
-535.78912 -84.44976 3.3444128
-535.789 -84.449806 3.3440773
-535.789 -84.449806 3.3440573
-535.78894 -84.449814 3.3440368
-535.78894 -84.449814 3.3440163
-535.78888 -84.449844 3.3437853
-535.78888 -84.449852 3.343766
-535.78888 -84.449852 3.3437464
-535.78888 -84.449852 3.3437254
-535.78882 -84.44986 3.3437033
-535.78882 -84.44986 3.3436811
-535.78882 -84.449867 3.3436577
-535.78882 -84.449867 3.3436344
-535.78888 -84.449844 3.3437858
-535.78888 -84.449852 3.3437614
-535.78888 -84.449852 3.3437362
-535.78888 -84.44986 3.3437123
-535.78882 -84.44986 3.3436942
-535.78882 -84.44986 3.3436708
-535.78882 -84.449867 3.3436451
-535.78882 -84.449867 3.3436208
-535.78876 -84.449905 3.3433838
-535.7887 -84.449905 3.3433571
-535.7887 -84.449913 3.3433297
-535.7887 -84.449913 3.343303
-535.7887 -84.449913 3.343282
-535.7887 -84.449921 3.343257
-535.7887 -84.449921 3.3432317
-535.7887 -84.449928 3.3432062
-535.78864 -84.449944 3.3430951
-535.78864 -84.449944 3.3430679
-535.78864 -84.449951 3.3430405
-535.7735 -83.776802 3.3261149
-535.7735 -83.77681 3.326086
-535.7735 -83.776817 3.3260574
-535.7735 -83.776817 3.3260319
-535.77344 -83.776817 3.3260069
-535.7735 -83.776817 3.3260217
-535.77344 -83.776825 3.3259959
-535.77344 -83.776825 3.3259716
-535.77344 -83.776833 3.325947
-535.77344 -83.776833 3.3259175
-535.77344 -83.77684 3.3258924
-535.77344 -83.77684 3.3258679
-535.77344 -83.77684 3.3258433
-535.77338 -83.776855 3.3257387
-535.77338 -83.776863 3.3257153
-535.77338 -83.776863 3.3256931
-535.77338 -83.776871 3.3256702
-535.77332 -83.776871 3.3256481
-535.77332 -83.776871 3.3256264
-535.77332 -83.776878 3.3256042
-535.77332 -83.776878 3.3255804
-535.77368 -83.776726 3.3266656
-535.77368 -83.776733 3.3266444
-535.77368 -83.776733 3.3266234
-535.77368 -83.776741 3.3266017
-535.77368 -83.776741 3.3265784
-535.77368 -83.776741 3.3265557
-535.77368 -83.776749 3.3265312
-535.77362 -83.776749 3.3265057
-535.77368 -83.776726 3.3266616
-535.77368 -83.776733 3.3266361
-535.77368 -83.776733 3.326611
-535.77368 -83.776741 3.3265877
-535.77368 -83.776741 3.3265653
-535.77368 -83.776749 3.3265426
-535.77368 -83.776749 3.3265181
-535.77362 -83.776756 3.3264942
-535.77399 -83.776619 3.3274496
-535.77399 -83.776627 3.3274257
-535.77399 -83.776627 3.3274024
-535.77399 -83.776627 3.3273807
-535.77393 -83.776634 3.3273654
-535.77393 -83.776634 3.3273466
-535.77393 -83.776634 3.3273273
-535.77393 -83.776642 3.3273096
-535.77429 -83.776505 3.3282719
-535.77429 -83.776505 3.3282547
-535.77429 -83.776512 3.3282371
-535.77429 -83.776512 3.3282206
-535.77423 -83.776512 3.328207
-535.77423 -83.77652 3.328191
-536.09424 -79.051949 3.2149105
-536.09424 -79.051949 3.2148974
-536.09424 -79.051949 3.2148855
-536.09424 -79.051949 3.2148728
-536.09412 -79.051987 3.2146156
-536.09412 -79.051987 3.2146001
-536.09412 -79.051994 3.2145848
-536.09412 -79.051994 3.21457
-536.09412 -79.051994 3.2145553
-536.09412 -79.052002 3.2145405
-536.09412 -79.052002 3.2145274
-536.09412 -79.052002 3.2145147
-536.07904 -78.378838 3.1977558
-536.07904 -78.378838 3.1977437
-536.07904 -78.378838 3.1977313
-536.07904 -78.378838 3.1977181
-536.07904 -78.378845 3.1977034
-536.07904 -78.378845 3.1976886
-536.07904 -78.378845 3.1976738
-536.07904 -78.378845 3.1976607
-536.07892 -78.378883 3.1974118
-536.07892 -78.378883 3.1973999
-536.07892 -78.378883 3.1973891
-536.07892 -78.378883 3.1973789
-536.07892 -78.378891 3.1973629
-536.07892 -78.378891 3.1973498
-536.07892 -78.378891 3.197335
-536.07892 -78.378899 3.1973207
-536.07892 -78.378891 3.197331
-536.07892 -78.378899 3.1973162
-536.07892 -78.378899 3.1973026
-536.07892 -78.378899 3.1972895
-536.07892 -78.378899 3.1972752
-536.07886 -78.378906 3.1972616
-536.07886 -78.378906 3.1972473
